# .PCD v0.7 - Point Cloud Data file format
VERSION 0.7
FIELDS x y z rgb
SIZE 4 4 4 4
TYPE F F F U
COUNT 1 1 1 1
WIDTH 1130
HEIGHT 1
VIEWPOINT 0 0 0 1 0 0 0
POINTS 1130
DATA ascii
0.45882726 0.0066061281 0.82045043 12993628
0.46300495 0.074800745 0.80571812 10515310
0.46166509 0.073752925 0.80856538 10581103
0.4603253 0.072705105 0.81141263 10777714
0.45968091 0.071679473 0.81354177 10711921
0.4576456 0.070609465 0.8171072 11039084
0.45700127 0.069583833 0.81923628 11170670
0.45635694 0.068558216 0.8213653 10515045
0.45569006 0.067536429 0.82208037 10646631
0.45571256 0.067532599 0.82349437 11172723
0.45574117 0.066532999 0.82349122 11567481
0.45507434 0.065511227 0.82420623 6040356
0.45437887 0.065489024 0.82492441 4724496
0.45373446 0.064463407 0.82705355 8739158
0.45309013 0.063437775 0.82918257 12094601
0.45175034 0.062389959 0.83202982 10981738
0.45043296 0.061338294 0.83629113 11442289
0.44976613 0.060316507 0.83700615 11510894
0.44842628 0.059268694 0.83985347 11181929
0.44778195 0.05824307 0.84198248 9800021
0.44710898 0.058217023 0.84411472 8747333
0.44576913 0.05716921 0.84696198 7366965
0.44512478 0.056143586 0.84909105 7235379
0.44378498 0.055095758 0.85193831 7432504
0.4424451 0.054047938 0.85478556 6840367
0.44110531 0.053000126 0.85763282 6183189
0.44046092 0.051974494 0.85976195 4538368
0.43981659 0.050948869 0.86189097 4009990
0.4391211 0.050926674 0.86260921 3944197
0.43845427 0.049904887 0.86332422 3680768
0.43850538 0.048901472 0.86473507 3614976
0.43780991 0.04887927 0.86545324 2429441
0.43786103 0.04787584 0.86686409 1376768
0.43719417 0.046854053 0.86757916 6114087
0.4364987 0.046831857 0.86829734 10982769
0.43654984 0.045828436 0.86970818 13614228
0.43588299 0.044806655 0.87042326 12035196
0.43588299 0.044806655 0.87042326 11379566
0.43521607 0.043784868 0.87113833 11116394
0.4352386 0.043781031 0.87255234 10786405
0.43526721 0.042781446 0.87254918 7365169
0.43460038 0.041759659 0.87326419 2957056
0.43462288 0.041755814 0.87467825 3286017
0.43395603 0.040734034 0.87539321 3813891
0.43395603 0.040734034 0.87539321 3813891
0.43328917 0.039712254 0.87610829 1575936
0.43334031 0.038708825 0.87751913 4470818
0.43264484 0.038686629 0.87823737 12957836
0.43267345 0.037687048 0.87823415 13549973
0.43336895 0.037709244 0.87751597 12102016
0.43339759 0.036709659 0.87751281 11707258
0.43339759 0.036709659 0.87751281 12037500
0.4327307 0.035687875 0.87822783 12761223
0.43278185 0.034684453 0.87963867 6707762
0.43208638 0.034662254 0.88035691 3023360
0.43141949 0.03364047 0.88107193 2232320
0.43144202 0.03363663 0.88248599 4798241
0.43077517 0.032614846 0.883201 13154188
0.43010831 0.031593066 0.88391602 13285774
0.43013078 0.031589221 0.88533008 12365942
0.43015939 0.030589636 0.88532686 12300149
0.42946392 0.030567441 0.8860451 11443821
0.42949253 0.029567856 0.88604188 12101751
0.430188 0.029590052 0.8853237 6771754
0.43021664 0.028590467 0.88532054 3350528
0.4301942 0.028594311 0.88390648 3351552
0.43091828 0.027616922 0.88318515 3285760
0.43161374 0.027639121 0.88246691 4604161
0.43161988 0.026643377 0.88104975 6512158
0.43231538 0.026665572 0.88033152 8220716
0.43229288 0.026669417 0.87891746 7233821
0.43301696 0.025692027 0.87819612 5457928
0.43371245 0.025714222 0.87747788 4865792
0.43441406 0.02474067 0.87534249 5062667
0.43510953 0.024762869 0.87462431 5523218
0.43511567 0.023767132 0.87320709 8942925
0.43581113 0.023789328 0.87248886 11706231
0.43581724 0.02279358 0.8710717 12627083
0.43651277 0.022815779 0.87035346 12758669
0.43720824 0.022837974 0.86963522 12298375
0.43723685 0.021838389 0.86963207 11640445
0.43721434 0.02184223 0.86821806 10127209
0.43724298 0.020842645 0.86821485 8679763
0.4372716 0.019843061 0.86821175 7362371
0.43796706 0.019865256 0.86749351 6243890
0.43794459 0.019869104 0.86607945 5648671
0.4386687 0.018891711 0.86535811 5846050
0.43869734 0.01789213 0.8653549 5449498
0.43939281 0.017914325 0.86463672 6173221
0.43937027 0.017918166 0.86322272 8671051
0.44009438 0.016940776 0.86250138 11171185
0.44009438 0.016940776 0.86250138 13734038
0.44010055 0.015945036 0.8610841 14260382
0.44079602 0.015967231 0.86036593 14455710
0.44152009 0.014989842 0.85964453 13995159
0.44149756 0.014993686 0.85823053 15374500
0.44222173 0.014016297 0.85750914 16295602
0.4428947 0.014042336 0.8553769 16358826
0.44361877 0.013064947 0.8546555 16755640
0.4442918 0.013090987 0.85252327 15369619
0.44501591 0.012113597 0.85180193 12803692
0.44499338 0.012117442 0.85038787 11940940
0.44571745 0.011140052 0.84966654 11217217
0.44639045 0.011166092 0.8475343 11020864
0.44709206 0.010192543 0.8453989 11678794
0.44846052 0.010240782 0.84254843 11613517
0.44983512 0.0092932731 0.8382808 11745103
0.45122606 0.0093376637 0.83684438 12138580
0.45192766 0.0083641186 0.83470899 11875408
0.45260066 0.0083901584 0.83257675 12467286
0.45327362 0.0084161982 0.83044451 12467286
0.4546707 0.0074648485 0.82759094 12402004
0.45603919 0.0075130872 0.82474041 12533590
0.45743626 0.0065617338 0.82188684 12403033
0.46298242 0.074804589 0.80430412 10581103
0.46164262 0.073756754 0.80715132 10581103
0.46030277 0.072708949 0.80999863 10450029
0.45896298 0.07166113 0.81284595 10384236
0.4576456 0.070609465 0.8171072 10515310
0.45697877 0.069587678 0.81782222 10515310
0.45633444 0.068562061 0.8199513 10317414
0.45569006 0.067536429 0.82208037 10514793
0.45499459 0.067514241 0.82279855 11237744
0.45502323 0.066514641 0.82279539 11698295
0.45502323 0.066514641 0.82279539 5711643
0.45437887 0.065489024 0.82492441 4987920
0.45371199 0.064467251 0.82563949 9465175
0.45306763 0.063441619 0.82776856 12689032
0.45172781 0.062393796 0.83061582 10916974
0.45038801 0.061345991 0.83346307 11509111
0.44974363 0.060320351 0.83559215 11510649
0.44907066 0.060294311 0.83772439 12036993
0.44842628 0.059268694 0.83985347 9075799
0.44706398 0.058224712 0.84128666 6641458
0.44644213 0.057195242 0.8448298 3744768
0.44510227 0.05614743 0.84767699 3218432
0.44376248 0.055099603 0.85052431 3416321
0.44311816 0.054073971 0.85265332 3218944
0.44177827 0.053026166 0.85550058 2823936
0.44043842 0.051978339 0.85834789 2626560
0.43976545 0.051952299 0.86048013 2888704
0.4391211 0.050926674 0.86260921 3349249
0.43914974 0.049927082 0.86260605 3284224
0.43845427 0.049904887 0.86332422 3744775
0.43778741 0.048883114 0.86403924 2035712
0.43783855 0.047879685 0.86545008 1969920
0.43714303 0.047857482 0.86616826 7496254
0.43647617 0.046835702 0.86688334 11838592
0.43652731 0.04583228 0.86829418 12890502
0.43652731 0.04583228 0.86829418 12166779
0.43586046 0.0448105 0.8690092 11969400
0.4359116 0.043807063 0.8704201 12824709
0.43521607 0.043784868 0.87113833 9733219
0.43524471 0.042785291 0.87113512 6706741
0.43454924 0.042763095 0.87185335 2890496
0.43460038 0.041759659 0.87326419 3614216
0.43393356 0.040737879 0.87397921 4469525
0.43393356 0.040737879 0.87397921 4206353
0.4332667 0.039716098 0.87469423 2297344
0.43331781 0.038712669 0.87610513 5192231
0.43262234 0.038690474 0.87682331 13614756
0.43265098 0.037690889 0.87682015 13285791
0.43265098 0.037690889 0.87682015 12168319
0.43267959 0.036691304 0.87681699 11576182
0.43267959 0.036691304 0.87681699 12168571
0.4327307 0.035687875 0.87822783 12760708
0.43206388 0.034666095 0.87894285 7693368
0.43136841 0.0346439 0.87966108 5324820
0.43139702 0.033644311 0.87965786 4337412
0.43141949 0.03364047 0.88107193 5324307
0.43144813 0.032640886 0.88106877 13087112
0.43080378 0.031615261 0.88319778 13087112
0.43010831 0.031593066 0.88391602 12166780
0.43013695 0.030593481 0.8839128 12627331
0.43013695 0.030593481 0.8839128 11245937
0.43016559 0.029593896 0.88390964 10456421
0.43016559 0.029593896 0.88390964 5521437
0.4301942 0.028594311 0.88390648 2560768
0.43088967 0.028616507 0.88318825 3416064
0.43089581 0.027620766 0.88177109 3547649
0.43089581 0.027620766 0.88177109 4205579
0.43156877 0.027646802 0.87963885 4337165
0.43229288 0.026669417 0.87891746 4402189
0.43298835 0.026691612 0.87819928 3941638
0.43299448 0.025695872 0.87678206 3348998
0.43368995 0.025718067 0.87606388 3809549
0.43369609 0.024722319 0.87464666 3744272
0.43508703 0.024766713 0.87321025 4533788
0.43509316 0.023770973 0.87179303 7692614
0.43578863 0.023793168 0.87107486 10061162
0.43576616 0.023797017 0.86966079 10784624
0.43649024 0.02281962 0.8689394 10916210
0.4371857 0.022841815 0.86822122 10322794
0.43721434 0.02184223 0.86821806 9006934
0.43719184 0.021846075 0.86680406 7822150
0.43722045 0.02084649 0.8668009 6177325
0.43791595 0.020868689 0.86608267 5190429
0.43794459 0.019869104 0.86607945 5650980
0.43792212 0.019872945 0.86466545 6241835
0.43795073 0.018873356 0.86466229 5386526
0.4386462 0.018895552 0.86394405 6763820
0.43867481 0.01789597 0.86394089 9000782
0.43937027 0.017918166 0.86322272 11500665
0.43937641 0.016922422 0.86180556 14592936
0.44007191 0.016944621 0.86108732 14198439
0.44079602 0.015967231 0.86036593 14658990
0.44077349 0.015971076 0.85895193 15445426
0.44149756 0.014993686 0.85823053 15050668
0.44147512 0.014997531 0.85681647 15902125
0.44219923 0.014020137 0.85609508 15770539
0.44287217 0.014046177 0.8539629 15964581
0.44359627 0.013068791 0.8532415 16754868
0.4442693 0.013094831 0.85110927 13527158
0.44499338 0.012117442 0.85038787 10829645
0.44497085 0.012121283 0.84897387 10890299
0.44567248 0.011147738 0.84683847 11219264
0.44636795 0.011169933 0.84612024 12006219
0.44706959 0.010196388 0.84398484 12203598
0.44774255 0.010222428 0.84185261 11942995
0.44983512 0.0092932731 0.8382808 12008788
0.45120353 0.0093415082 0.83543038 12074834
0.45187658 0.0093675479 0.83329809 12074834
0.45257816 0.0083939992 0.83116275 12270930
0.45325112 0.0084200427 0.82903045 12402516
0.4546482 0.007468693 0.82617688 12402517
0.45601669 0.007516928 0.82332647 12468310
0.46162012 0.073760599 0.80573738 10711662
0.45958483 0.072690591 0.80930281 10580588
0.45896298 0.07166113 0.81284595 10580588
0.45762312 0.07061331 0.81569314 10449517
0.45697877 0.069587678 0.81782222 10383724
0.4562833 0.069565475 0.81854045 10382694
0.45563897 0.068539858 0.82066947 10448487
0.45427662 0.067495883 0.82210273 11236461
0.45430523 0.066496298 0.82209957 11631219
0.45430523 0.066496298 0.82209957 5842202
0.45435637 0.065492868 0.82351041 5315858
0.45371199 0.064467251 0.82563949 10450532
0.45234966 0.063423261 0.82707274 13279631
0.45170534 0.06239764 0.82920176 11178354
0.45036548 0.061349828 0.83204901 11704698
0.45038801 0.061345991 0.83346307 11773053
0.44974363 0.060320351 0.83559215 12365190
0.4483813 0.059276376 0.8370254 8614735
0.44773692 0.058250751 0.83915448 5917222
0.44639713 0.057202939 0.84200168 3611904
0.44505733 0.056155112 0.84484899 3875072
0.44443542 0.055125643 0.84839207 4665109
0.44307309 0.05408166 0.84982526 5059867
0.44173324 0.053033847 0.85267258 5125409
0.44108281 0.053003971 0.85621881 5059616
0.43972045 0.051959988 0.85765207 5322528
0.43907613 0.050934356 0.85978115 5585700
0.43910474 0.049934771 0.85977799 5783077
0.43912727 0.049930934 0.86119199 6046249
0.43846038 0.048909154 0.86190701 2757632
0.43779355 0.047887366 0.86262208 3086593
0.43781602 0.047883522 0.86403608 9666143
0.4371492 0.046861742 0.8647511 12429449
0.43720031 0.04585832 0.86616194 12034167
0.43650478 0.045836125 0.86688018 11968374
0.43583795 0.044814344 0.8675952 12232572
0.43583795 0.044814344 0.8675952 12824709
0.4358891 0.043810908 0.86900604 9140312
0.43522227 0.042789135 0.86972106 5784869
0.43522227 0.042789135 0.86972106 2889728
0.43455535 0.041767348 0.87043613 3679241
0.43460649 0.040763918 0.87184697 4731929
0.43391103 0.040741723 0.87256515 4731929
0.43396217 0.039738294 0.87397605 2757890
0.4332667 0.039716098 0.87469423 5718575
0.43259984 0.038694318 0.87540931 13614756
0.43262845 0.037694734 0.87540615 13614756
0.43262845 0.037694734 0.87540615 12628358
0.43265709 0.036695149 0.87540293 11838842
0.43265709 0.036695149 0.87540293 12102269
0.4327082 0.03569172 0.87681383 13089164
0.43201274 0.035669524 0.87753201 9995359
0.43134588 0.034647744 0.87824702 9863773
0.43137449 0.033648159 0.87824386 7626297
0.43137449 0.033648159 0.87824386 7034160
0.43142563 0.032644726 0.87965471 11837047
0.43073016 0.032622531 0.88037294 12889735
0.4307813 0.031619105 0.88178378 12758149
0.43011445 0.030597325 0.8824988 11968633
0.43011445 0.030597325 0.8824988 9337429
0.43014306 0.029597741 0.88249564 8679499
0.43014306 0.029597741 0.88249564 5586463
0.43086717 0.028620351 0.88177431 3875845
0.43086717 0.028620351 0.88177431 5190942
0.43087327 0.027624607 0.88035709 5519907
0.43087327 0.027624607 0.88035709 5849130
0.43154627 0.027650651 0.87822485 6178095
0.43227035 0.026673261 0.87750345 5914170
0.43296584 0.026695456 0.87678528 5716791
0.43297195 0.025699712 0.87536806 5782076
0.43366748 0.025721911 0.87464982 5650490
0.43367356 0.024726164 0.8732326 4795177
0.43436903 0.024748359 0.87251443 4334626
0.43509316 0.023770973 0.87179303 4861724
0.43507063 0.023774818 0.87037903 5256482
0.43576616 0.023797017 0.86966079 4993813
0.43646774 0.022823464 0.8675254 4796434
0.43646774 0.022823464 0.8675254 4795923
0.43719184 0.021846075 0.86680406 4927509
0.43719184 0.021846075 0.86680406 5190427
0.43719798 0.020850334 0.86538684 5322013
0.43789348 0.02087253 0.86466861 5190681
0.43792212 0.019872945 0.86466545 5256474
0.43792212 0.019872945 0.86466545 6175276
0.4386462 0.018895552 0.86394405 7030585
0.4386462 0.018895552 0.86394405 10513769
0.43865234 0.017899815 0.86252689 13013903
0.4393478 0.01792201 0.86180872 15579063
0.43937641 0.016922422 0.86180556 16763337
0.43935394 0.016926266 0.8603915 15842753
0.44007802 0.015948877 0.8596701 15711167
0.44077349 0.015971076 0.85895193 16761032
0.4407796 0.014975332 0.85753471 16629446
0.44147512 0.014997531 0.85681647 16758722
0.4421767 0.014023982 0.85468107 16561086
0.44284967 0.014050022 0.85254884 15965610
0.44357383 0.013072636 0.85182744 16228782
0.44424677 0.013098672 0.84969521 12934253
0.44497085 0.012121283 0.84897387 10302533
0.44494838 0.012125123 0.84755987 11219523
0.44636795 0.011169933 0.84612024 11482695
0.44634548 0.011173777 0.84470624 12072526
0.44704708 0.010200232 0.84257078 12269905
0.44843802 0.010244623 0.84113443 12008788
0.44911712 0.0092749186 0.83758497 12074581
0.45048559 0.0093231536 0.83473456 12140115
0.45185405 0.0093713887 0.83188409 12140115
0.45255566 0.0083978437 0.82974869 12402004
0.45322865 0.0084238835 0.82761645 12467797
0.45462573 0.0074725337 0.82476282 12402519
0.45599419 0.0075207688 0.82191241 12468312
0.46156901 0.074764043 0.80432647 10711148
0.4595623 0.072694436 0.80788881 10580075
0.45894045 0.071664974 0.81143188 10645868
0.45690516 0.070594952 0.81499732 10514540
0.45695627 0.069591522 0.81640822 10448747
0.4562608 0.069569319 0.81712639 10448230
0.45561647 0.068543702 0.81925547 10448230
0.45497209 0.067518085 0.82138455 11039336
0.4550007 0.066518486 0.82138133 11236715
0.4550007 0.066518486 0.82138133 6169884
0.45363837 0.06547451 0.82281458 5709333
0.45368952 0.064471096 0.82422543 10909543
0.45302266 0.063449293 0.8249405 13212298
0.45234966 0.063423261 0.82707274 11308147
0.45100981 0.062375445 0.82991999 11702905
0.45034298 0.061353672 0.83063501 11902590
0.44969866 0.06032804 0.83276409 12626313
0.44905427 0.059302416 0.83489317 8218952
0.44840991 0.058276791 0.83702219 5324060
0.44701892 0.058232401 0.83845866 4070919
0.44639713 0.057202939 0.84200168 4926228
0.44505733 0.056155112 0.84484899 5913899
0.44371745 0.055107284 0.84769624 6440243
0.44237763 0.054059464 0.8505435 6703419
0.44103777 0.053011652 0.85339075 6637626
0.44039345 0.051986028 0.85551983 6966073
0.43974906 0.050960395 0.85764891 6834487
0.43974906 0.050960395 0.85764891 6373936
0.43908221 0.049938615 0.85836393 6571315
0.43913335 0.048935194 0.85977483 2098432
0.43843788 0.048912998 0.86049294 3282694
0.43779355 0.047887366 0.86262208 11243896
0.4371267 0.046865586 0.86333704 13151893
0.4371267 0.046865586 0.86333704 11901816
0.43717784 0.045862157 0.86474794 12230781
0.43651095 0.044840384 0.86546296 12429437
0.43581545 0.044818182 0.86618119 13021574
0.43586659 0.043814752 0.86759204 8941652
0.43519974 0.04279298 0.86830705 4994072
0.43519974 0.04279298 0.86830705 3283458
0.43525088 0.041789543 0.8697179 3612423
0.43455535 0.041767348 0.87043613 4796442
0.43388849 0.040745568 0.87115115 4862235
0.43393967 0.039742138 0.87256199 3086342
0.4332442 0.039719943 0.87328023 6704957
0.43257737 0.038698163 0.87399518 13679779
0.43257737 0.038698163 0.87399518 13613986
0.43262845 0.037694734 0.87540615 12890766
0.43265709 0.036695149 0.87540293 12430215
0.43265709 0.036695149 0.87540293 12298114
0.43268573 0.03569556 0.87539977 12692872
0.43199027 0.035673365 0.876118 11836798
0.43204135 0.034669939 0.87752885 11376247
0.43137449 0.033648159 0.87824386 10126179
0.43137449 0.033648159 0.87824386 10257765
0.43140313 0.032648575 0.8782407 11639416
0.43070766 0.032626376 0.87895888 11310451
0.43075877 0.031622946 0.88036978 11178608
0.43075877 0.031622946 0.88036978 10060127
0.43078738 0.030623361 0.88036656 7954498
0.43078738 0.030623361 0.88036656 6836017
0.43081602 0.029623777 0.8803634 4993050
0.43081602 0.029623777 0.8803634 4335120
0.43082216 0.028628036 0.87894619 6111282
0.43082216 0.028628036 0.87894619 7163970
0.43154627 0.027650651 0.87822485 7098437
0.43224174 0.027672846 0.87750661 7098437
0.43224788 0.026677102 0.87608945 6769731
0.43294334 0.026699297 0.87537122 6638145
0.43294948 0.025703553 0.873954 7229518
0.43364495 0.025725752 0.87323582 6834760
0.43436903 0.024748359 0.87251443 5979193
0.43434653 0.0247522 0.87110043 5584435
0.43504199 0.024774395 0.87038219 5452580
0.43504816 0.023778662 0.86896497 5518373
0.43574363 0.023800857 0.86824679 4992281
0.43646774 0.022823464 0.8675254 5321246
0.43644524 0.022827305 0.8661114 5584168
0.43716937 0.021849919 0.86539 5978926
0.43716937 0.021849919 0.86539 6242363
0.43717551 0.020854179 0.86397278 6176570
0.43787098 0.020876374 0.86325461 6111292
0.43789959 0.019876789 0.86325145 6835015
0.43789959 0.019876789 0.86325145 8345936
0.43792823 0.018877201 0.86324823 10253933
0.4386237 0.018899396 0.86253011 13540248
0.43865234 0.017899815 0.86252689 15711417
0.43862981 0.017903659 0.86111289 16368579
0.43935394 0.016926266 0.8603915 16697544
0.43933141 0.016930107 0.85897744 15973310
0.44005549 0.015952718 0.8582561 16104896
0.44075096 0.015974917 0.85753787 16761289
0.44075716 0.014979176 0.85612065 16563653
0.44145262 0.015001372 0.85540247 16761033
0.4421542 0.014027826 0.85326707 16761033
0.44282722 0.014053863 0.85113478 16361395
0.4435513 0.013076473 0.85041344 14058640
0.44422427 0.013102513 0.84828126 12012640
0.44494838 0.012125123 0.84755987 10104643
0.4449259 0.012128972 0.84614581 11350599
0.44634548 0.011173777 0.84470624 11482185
0.44632298 0.011177618 0.84329224 12072528
0.44702458 0.010204073 0.84115678 12335700
0.44841552 0.010248464 0.83972037 12139861
0.44911712 0.0092749186 0.83758497 12139861
0.45048559 0.0093231536 0.83473456 12467284
0.45115858 0.0093491934 0.83260226 12467284
0.45255566 0.0083978437 0.82974869 12533079
0.45392412 0.0084460787 0.82689828 12598872
0.45460325 0.0074763782 0.82334876 12533338
0.45597166 0.0075246133 0.82049835 12599131
0.46090215 0.073742256 0.80504155 10645609
0.4595623 0.072694436 0.80788881 10645355
0.45822248 0.071646616 0.81073606 10645355
0.45690516 0.070594952 0.81499732 10580076
0.45623827 0.069573164 0.81571239 10514283
0.4555428 0.069550961 0.81643057 10316644
0.45489848 0.068525344 0.81855965 10316644
0.45425409 0.067499727 0.82068872 10710630
0.4542827 0.066500142 0.82068551 10579044
0.4542827 0.066500142 0.82068551 6763304
0.45361587 0.065478355 0.82140058 6236960
0.45366701 0.06447494 0.82281142 10580836
0.45297155 0.064452738 0.8235296 12423040
0.45232716 0.063427106 0.82565868 11504247
0.45168281 0.062401485 0.82778776 11833212
0.45101598 0.061379712 0.82850277 11704188
0.45034909 0.060357925 0.82921785 12427911
0.44967616 0.060331885 0.83135003 8349002
0.44903177 0.059306253 0.83347917 5651489
0.44769198 0.05825844 0.83632636 4991002
0.44704756 0.057232816 0.83845544 6043690
0.4457078 0.056184996 0.84130269 7426374
0.44436795 0.055137176 0.84414995 7557960
0.44305062 0.054085497 0.84841132 7755339
0.4417108 0.053037692 0.85125852 7821132
0.44106641 0.052012067 0.85338759 7821128
0.44042209 0.050986435 0.85551667 7557956
0.44042209 0.050986435 0.85551667 6965308
0.43975526 0.049964655 0.85623169 7096894
0.43905973 0.04994246 0.85694993 2162944
0.43841538 0.048916843 0.85907894 3544587
0.43777102 0.047891211 0.86120802 11768960
0.43710417 0.046869431 0.8619231 13808543
0.4371267 0.046865586 0.86333704 12625287
0.43715531 0.045866009 0.86333388 12625287
0.43648848 0.044844229 0.86404896 12560257
0.43579298 0.044822026 0.86476713 13086601
0.43584406 0.043818597 0.86617804 8546635
0.4351486 0.043796401 0.86689621 4270090
0.43519974 0.04279298 0.86830705 3940620
0.43522835 0.041793387 0.86830389 4203792
0.43453288 0.041771192 0.86902207 4993310
0.43386599 0.040749412 0.86973715 4795931
0.43391716 0.039745983 0.87114799 3546377
0.4332442 0.039719943 0.87328023 6770234
0.43257737 0.038698163 0.87399518 12166281
0.43257737 0.038698163 0.87399518 13087383
0.43191049 0.037676379 0.87471026 12824207
0.43193913 0.036676794 0.8747071 13087379
0.43193913 0.036676794 0.8747071 13350036
0.43196774 0.035677206 0.87470394 12823692
0.43199027 0.035673365 0.876118 10783343
0.43201888 0.034673784 0.87611485 8151623
0.43132338 0.034651589 0.87683302 5915174
0.43135202 0.033652 0.87682986 5191451
0.43138063 0.032652415 0.87682664 6310186
0.43138063 0.032652415 0.87682664 5520670
0.43071377 0.031630632 0.87754166 4730387
0.4307363 0.031626791 0.87895572 4861973
0.43076491 0.030627206 0.8789525 4861464
0.43076491 0.030627206 0.8789525 5716773
0.43079352 0.029627621 0.87894934 6307889
0.43079352 0.029627621 0.87894934 6505268
0.43079966 0.028631877 0.87753212 7360328
0.43149513 0.028654076 0.87681401 8215637
0.43221927 0.027676687 0.87609261 8347741
0.43221927 0.027676687 0.87609261 8479327
0.43222535 0.026680943 0.87467539 7756374
0.43292087 0.026703138 0.87395716 6769479
0.43292695 0.025707401 0.87254 6176834
0.43431789 0.025751792 0.87110358 5584697
0.43431789 0.025751792 0.87110358 5255728
0.43432403 0.024756044 0.86968637 5321521
0.43501955 0.024778243 0.86896813 5453098
0.43502569 0.023782503 0.86755097 5650477
0.43572116 0.023804698 0.86683273 6045485
0.43644524 0.022827305 0.8661114 5913899
0.43642277 0.022831153 0.86469734 6242868
0.4371469 0.021853764 0.863976 6703419
0.4371469 0.021853764 0.863976 7164230
0.43787098 0.020876374 0.86325461 8019539
0.43784845 0.020880219 0.86184061 9927793
0.43787709 0.019880634 0.86183745 12098962
0.43787709 0.019880634 0.86183745 14201513
0.43790573 0.018881042 0.86183429 14596271
0.43790573 0.018881042 0.86183429 15119279
0.43862981 0.017903659 0.86111289 15711416
0.43860734 0.0179075 0.85969877 15249838
0.43933141 0.016930107 0.85897744 15776182
0.44002688 0.016952302 0.85825926 15841206
0.44003302 0.015956562 0.85684204 16170171
0.44072855 0.015978761 0.85612381 16300735
0.44073462 0.014983021 0.85470665 16629700
0.44143009 0.015005216 0.85398841 16762058
0.44282722 0.014053863 0.85113478 16036793
0.44280469 0.014057707 0.84972078 13203331
0.44422427 0.013102513 0.84828126 11229541
0.44489726 0.013128556 0.84614897 10235714
0.44490337 0.012132812 0.84473175 10630472
0.44559887 0.012155008 0.84401357 11743563
0.44632298 0.011177618 0.84329224 11875149
0.44699594 0.011203658 0.84115994 12334673
0.44769752 0.010230113 0.83902454 12532052
0.44837055 0.010256153 0.83689231 12466770
0.44904351 0.010282189 0.83476007 12466770
0.45044059 0.0093308426 0.83190644 12728659
0.45183152 0.0093752332 0.83047009 12794452
0.45253319 0.0084016882 0.82833463 12663895
0.45390159 0.0084499232 0.82548422 12795481
0.45460325 0.0074763782 0.82334876 12599131
0.45597166 0.0075246133 0.82049835 12599131
0.46020669 0.073720053 0.80575967 10775912
0.45884433 0.072676092 0.80719298 10775914
0.45750451 0.071628258 0.81004024 10841707
0.45688266 0.070598796 0.81358331 10841707
0.4555203 0.069554821 0.81501657 10775914
0.4555203 0.069554821 0.81501657 10315361
0.45489848 0.068525344 0.81855965 10512740
0.45423162 0.067503572 0.81927466 10250849
0.45426026 0.066503972 0.81927145 9987677
0.45426026 0.066503972 0.81927145 7948605
0.45361587 0.065478355 0.82140058 7356468
0.45294905 0.064456582 0.8221156 9791836
0.45294905 0.064456582 0.8221156 11107696
0.45300019 0.063453153 0.82352644 11305588
0.4516378 0.062409166 0.8249597 11831932
0.45099348 0.061383549 0.82708871 11570040
0.45029801 0.061361354 0.82780695 12162177
0.44965363 0.060335729 0.82993603 8544843
0.4490093 0.059310105 0.83206511 5781537
0.44836491 0.058284473 0.83419418 5582630
0.44772059 0.057258856 0.8363232 6832697
0.44638073 0.056211036 0.83917046 9135197
0.44434544 0.055141013 0.84273595 8937818
0.44302809 0.054089341 0.84699726 8938330
0.44238377 0.053063724 0.84912628 9135709
0.44104391 0.052015912 0.85197359 8872789
0.44034845 0.051993717 0.85269177 8478031
0.44039959 0.05099028 0.85410261 7491138
0.43973273 0.0499685 0.85481763 7359552
0.43903726 0.049946304 0.85553586 2556160
0.43839288 0.048920687 0.85766494 3806219
0.43774855 0.047895055 0.85979396 11965060
0.43708166 0.046873268 0.86050904 13938850
0.43710417 0.046869431 0.8619231 13216144
0.43643734 0.045847651 0.86263806 12887179
0.43643734 0.045847651 0.86263806 12164990
0.43648848 0.044844229 0.86404896 12691334
0.43582159 0.043822441 0.86476398 8480329
0.43512613 0.043800246 0.86548221 4335370
0.43517724 0.042796817 0.86689305 4663316
0.43451041 0.041775037 0.86760807 4729109
0.43381494 0.041752834 0.86832631 5321764
0.43386599 0.040749412 0.86973715 5124385
0.43386599 0.040749412 0.86973715 4598550
0.4332217 0.039723787 0.87186617 6506547
0.43255484 0.038702 0.87258124 9402205
0.43185937 0.038679805 0.87329936 11968132
0.43188798 0.03768022 0.8732962 13876129
0.43191662 0.036680635 0.87329304 13349785
0.43191662 0.036680635 0.87329304 12033410
0.43196774 0.035677206 0.87470394 10585964
0.43127227 0.03565501 0.87542212 7691072
0.43130088 0.034655429 0.87541896 4993559
0.43130088 0.034655429 0.87541896 4467728
0.43135202 0.033652 0.87682986 4796693
0.43138063 0.032652415 0.87682664 5191453
0.43138063 0.032652415 0.87682664 4665109
0.43140924 0.031652831 0.87682348 3940875
0.43071377 0.031630632 0.87754166 4006668
0.43004695 0.030608851 0.87825668 4663832
0.43074241 0.030631047 0.8775385 6045485
0.43146652 0.029653661 0.87681717 7360581
0.43146652 0.029653661 0.87681717 8150097
0.43149513 0.028654076 0.87681401 8610395
0.43147266 0.028657917 0.87539995 9005153
0.43219674 0.027680527 0.87467855 9071464
0.43217427 0.027684372 0.87326449 9071464
0.43289834 0.026706986 0.87254316 9071213
0.43289834 0.026706986 0.87254316 9137006
0.43362242 0.025729597 0.87182176 8874094
0.43429539 0.025755633 0.86968958 8808301
0.43429539 0.025755633 0.86968958 8742507
0.43430156 0.024759889 0.86827236 8610921
0.43499702 0.024782084 0.86755413 8677728
0.43569863 0.023808543 0.86541879 8875107
0.43639416 0.023830742 0.86470056 8217680
0.43642277 0.022831153 0.86469734 7888715
0.43640029 0.022834994 0.86328334 7427649
0.4364289 0.021835409 0.86328018 7493442
0.43712437 0.021857604 0.86256194 8743252
0.43784845 0.020880219 0.86184061 10124905
0.43782595 0.020884056 0.86042655 11638143
0.43785459 0.019884471 0.86042339 13217175
0.43785459 0.019884471 0.86042339 14135720
0.4378832 0.018884886 0.86042023 13609376
0.4378832 0.018884886 0.86042023 14132638
0.43860734 0.0179075 0.85969877 14132638
0.4385848 0.017911345 0.85828483 14789285
0.43861344 0.016911756 0.85828161 15118250
0.44000438 0.016956147 0.8568452 16038325
0.44001055 0.015960407 0.85542798 15906739
0.44070601 0.015982602 0.8547098 16168118
0.44071212 0.014986861 0.85329258 16694462
0.44210306 0.015031256 0.85185623 16167350
0.44280469 0.014057707 0.84972078 13469837
0.44347769 0.014083747 0.8475886 10899547
0.4441793 0.013110202 0.84545314 8794171
0.44487476 0.013132397 0.84473491 10563652
0.44554773 0.013158437 0.84260273 10892617
0.44627184 0.012181047 0.84188133 12203344
0.44624934 0.012184892 0.84046727 12269137
0.44766891 0.011229698 0.83902776 12662609
0.44834191 0.011255737 0.83689547 12728402
0.44904351 0.010282189 0.83476007 12794195
0.44971645 0.010308228 0.83262789 12859988
0.45041811 0.0093346834 0.83049244 12925781
0.45178658 0.0093829185 0.82764196 13123160
0.45251065 0.0084055327 0.82692063 12598872
0.45387912 0.0084537677 0.82407022 12664665
0.45458072 0.0074802227 0.82193482 12599385
0.45525366 0.0075062588 0.81980252 12665178
0.46018416 0.073723897 0.80434573 10971751
0.45882183 0.072679922 0.80577892 10971753
0.45819998 0.07165046 0.809322 11037546
0.45686018 0.070602641 0.81216931 11036776
0.45546919 0.07055825 0.81360567 11102569
0.4555203 0.069554821 0.81501657 10511459
0.45487598 0.068529189 0.81714559 10708838
0.45351368 0.067485213 0.81857884 10250081
0.45354229 0.066485628 0.81857562 9921116
0.45354229 0.066485628 0.81857562 9067345
0.45359337 0.065482199 0.81998652 8606794
0.45292652 0.064460427 0.8207016 9396564
0.45294905 0.064456582 0.8221156 10054494
0.45228219 0.063434795 0.82283062 10777706
0.45161533 0.062413011 0.82354569 11369843
0.45097095 0.061387394 0.82567471 11238768
0.45099348 0.061383549 0.82708871 11370354
0.45032662 0.060361762 0.82780379 8214340
0.4489868 0.059313949 0.83065104 5516827
0.44834238 0.058288317 0.83278012 5712933
0.44769806 0.057262693 0.8349092 7291965
0.44635823 0.05621488 0.83775645 10120552
0.44432294 0.055144858 0.84132189 9857380
0.44300562 0.054093193 0.8455832 9792099
0.44236127 0.053067569 0.84771228 9857892
0.4416883 0.053041529 0.84984452 9332314
0.44102144 0.052019749 0.85055953 8871763
0.44035456 0.050997961 0.85127461 7753282
0.44037706 0.050994124 0.85268861 7161145
0.43901473 0.049950141 0.8541218 3081216
0.43837035 0.048924524 0.85625088 4265487
0.43772602 0.0478989 0.85837996 12226692
0.43703055 0.047876704 0.85909814 13345173
0.43708166 0.046873268 0.86050904 12622728
0.43641484 0.045851495 0.86122406 12556935
0.43643734 0.045847651 0.86263806 11506041
0.43646598 0.044848066 0.8626349 11374455
0.43579912 0.043826286 0.86334991 7887422
0.43510363 0.043804083 0.86406815 4663565
0.43515474 0.042800661 0.86547905 4926488
0.43448788 0.041778881 0.86619401 5123867
0.43451041 0.041775037 0.86760807 5255973
0.43384355 0.040753249 0.86832309 5058594
0.43314803 0.040731054 0.86904132 4532500
0.43319917 0.039727632 0.87045217 5256223
0.43253231 0.038705844 0.87116718 5782566
0.43183684 0.038683649 0.87188542 6966840
0.43188798 0.03768022 0.8732962 7953735
0.43186548 0.037684068 0.8718822 7164219
0.43189412 0.036684483 0.87187904 5848868
0.43194526 0.03568105 0.87328988 4598801
0.43124974 0.035658855 0.87400812 4072200
0.43127838 0.03465927 0.87400496 5256474
0.43127838 0.03465927 0.87400496 5454110
0.43130702 0.033659685 0.87400174 6046247
0.43130702 0.033659685 0.87400174 6309423
0.43133563 0.032660101 0.87399858 7033146
0.43133563 0.032660101 0.87399858 6966587
0.43138677 0.031656671 0.87540948 7624517
0.43071991 0.030634891 0.8761245 8610644
0.43071991 0.030634891 0.8761245 9071195
0.43144402 0.029657502 0.87540311 9268578
0.43144402 0.029657502 0.87540311 9663336
0.43147266 0.028657917 0.87539995 9597288
0.43145013 0.028661761 0.87398589 9663081
0.43217427 0.027684372 0.87326449 10189429
0.43215173 0.027688216 0.87185049 10518394
0.4328472 0.027710412 0.87113231 11571078
0.43287581 0.026710827 0.87112916 13610661
0.43357128 0.026733022 0.87041092 14663869
0.43357742 0.025737278 0.86899376 15321799
0.43427294 0.025759477 0.86827552 15387850
0.43427908 0.024763733 0.8668583 15124678
0.43497455 0.024785928 0.86614013 15454148
0.43569863 0.023808543 0.86541879 15651527
0.43567616 0.023812387 0.86400473 15322559
0.43640029 0.022834994 0.86328334 14269871
0.43637776 0.022838835 0.86186928 13019806
0.43640637 0.02183925 0.86186612 13217185
0.43710184 0.021861445 0.86114794 14794935
0.43782595 0.020884056 0.86042655 14926521
0.43782595 0.020884056 0.86042655 15057849
0.43783212 0.019888319 0.85900933 16307916
0.43783212 0.019888319 0.85900933 14991029
0.43786073 0.018888731 0.85900617 13477790
0.43786073 0.018888731 0.85900617 13014157
0.43788934 0.017889149 0.85900295 13211536
0.4385848 0.017911345 0.85828483 14262939
0.43859094 0.016915601 0.85686761 15249834
0.43928641 0.016937796 0.85614938 15972530
0.44001055 0.015960407 0.85542798 15577772
0.44068348 0.015986446 0.8532958 15707050
0.44068962 0.014990706 0.85187858 16233394
0.44138509 0.015012901 0.85116041 14257811
0.44208676 0.014039356 0.84902495 11889263
0.44347769 0.014083747 0.8475886 9253182
0.4441793 0.013110202 0.84545314 8726838
0.44485226 0.013136242 0.84332091 11220299
0.44554773 0.013158437 0.84260273 11746643
0.44555387 0.012162697 0.84118551 12204114
0.44622684 0.012188733 0.83905327 12269907
0.44764638 0.011233542 0.8376137 12597073
0.44831941 0.011259582 0.83548146 12728659
0.44902098 0.010286033 0.83334607 12860245
0.44969401 0.010312073 0.83121383 12860245
0.45039558 0.0093385242 0.82907844 12926040
0.45178658 0.0093829185 0.82764196 13057626
0.45248815 0.0084093735 0.82550663 12533338
0.45316112 0.0084354132 0.82337439 12664924
0.45455819 0.0074840635 0.82052076 12730458
0.45523125 0.0075101033 0.81838846 12796251
0.45877072 0.073683351 0.80436802 11036263
0.45814887 0.07265389 0.80791116 11167849
0.45680904 0.07160607 0.81075847 11102310
0.45544672 0.070562094 0.81219167 11036517
0.45549783 0.06955865 0.81360251 10708326
0.45485348 0.068533033 0.81573164 10708326
0.45349115 0.067489058 0.81716484 10249315
0.45349115 0.067489058 0.81716484 10117729
0.45351976 0.066489473 0.81716168 9856091
0.4535709 0.065486044 0.81857246 9527126
0.45292652 0.064460427 0.8207016 9592403
0.45292652 0.064460427 0.8207016 9526610
0.45225966 0.063438639 0.82141662 9789015
0.45161533 0.062413011 0.82354569 9986394
0.45091981 0.062390815 0.82426387 9658712
0.45097095 0.061387394 0.82567471 9592919
0.45030412 0.060365606 0.82638973 7555385
0.44965976 0.059339982 0.82851887 5515802
0.44831997 0.058292169 0.83136606 5712674
0.44767556 0.057266537 0.83349514 7489085
0.44630712 0.057218302 0.83634555 10185318
0.44430047 0.05514871 0.83990788 10316904
0.44298309 0.05409703 0.84416914 10711662
0.4416433 0.053049225 0.84701645 10645869
0.44097033 0.053023178 0.84914869 10252389
0.4403035 0.052001398 0.84986371 9331287
0.44035456 0.050997961 0.85127461 8213317
0.43965909 0.050975766 0.85199279 7029043
0.4397102 0.049972337 0.85340363 3935491
0.43834791 0.048928369 0.85483682 4922386
0.43770352 0.047902737 0.8569659 11830653
0.43700805 0.047880542 0.85768414 12620169
0.43705919 0.04687712 0.85909498 12818829
0.43639231 0.04585534 0.85980999 13279380
0.43641484 0.045851495 0.86122406 11833474
0.43574798 0.044829715 0.86193907 10122856
0.43508112 0.043807928 0.86265409 6899502
0.43510363 0.043804083 0.86406815 4728333
0.43443674 0.04278231 0.86478323 4794389
0.43448788 0.041778881 0.86619401 5452319
0.43379241 0.041756678 0.86691225 5649963
0.43312559 0.040734898 0.86762726 5649963
0.43312559 0.040734898 0.86762726 5058074
0.43317667 0.039731469 0.86903816 4794902
0.43253231 0.038705844 0.87116718 5452319
0.43183684 0.038683649 0.87188542 5583905
0.43186548 0.037684068 0.8718822 5255455
0.43186548 0.037684068 0.8718822 5321248
0.43189412 0.036684483 0.87187904 5059095
0.43192273 0.035684895 0.87187588 3809028
0.43122727 0.035662699 0.87259406 4202765
0.43195134 0.034685314 0.87187272 5518625
0.43195134 0.034685314 0.87187272 6506289
0.43197998 0.033685725 0.87186956 8019528
0.43128452 0.03366353 0.87258768 8413516
0.43131316 0.032663945 0.87258452 8742481
0.43131316 0.032663945 0.87258452 9399899
0.43134177 0.03166436 0.87258136 9531485
0.43136424 0.031660516 0.87399542 10123883
0.43139288 0.030660931 0.87399226 10255469
0.43142152 0.029661346 0.87398911 10321264
0.43142152 0.029661346 0.87398911 10650229
0.43145013 0.028661761 0.87398589 10715769
0.43142766 0.028665606 0.87257183 11176320
0.43212312 0.028687801 0.87185365 11570569
0.4328472 0.027710412 0.87113231 12031120
0.4328247 0.027714252 0.86971831 12821663
0.43285334 0.026714668 0.86971509 13742765
0.43354881 0.026736863 0.86899692 13939893
0.43355498 0.025741126 0.8675797 13939893
0.43425044 0.025763322 0.86686146 14137526
0.43497455 0.024785928 0.86614013 14400698
0.43495202 0.024789769 0.86472613 14927291
0.43567616 0.023812387 0.86400473 15256256
0.43565369 0.023816228 0.86259067 15387323
0.43637776 0.022838835 0.86186928 14992565
0.43707323 0.02286103 0.8611511 14005672
0.43707937 0.02186529 0.85973388 13084570
0.43707937 0.02186529 0.85973388 13479075
0.43780348 0.020887904 0.85901248 14531763
0.43780348 0.020887904 0.85901248 14860471
0.43783212 0.019888319 0.85900933 14597299
0.43780959 0.01989216 0.85759532 13609887
0.4378382 0.018892571 0.85759217 12228234
0.4378382 0.018892571 0.85759217 11961467
0.43786684 0.01789299 0.85758901 12685190
0.4385623 0.017915186 0.85687077 13604493
0.43928641 0.016937796 0.85614938 15117732
0.43926394 0.016941637 0.85473531 15578283
0.43998802 0.015964247 0.85401398 15775662
0.43996555 0.015968092 0.85259998 15443617
0.44138509 0.015012901 0.85116041 14456722
0.44136265 0.015016746 0.84974635 13136760
0.44206423 0.014043197 0.84761095 10176075
0.44345516 0.014087588 0.84617454 9382199
0.4434613 0.013091847 0.84475732 10237508
0.44413429 0.013117887 0.84262508 11482446
0.44552523 0.013162281 0.84118867 11745618
0.44553137 0.012166537 0.83977145 12205140
0.44622684 0.012188733 0.83905327 12336726
0.44692841 0.011215188 0.83691788 12664149
0.44760144 0.011241227 0.83478564 12664149
0.44899848 0.010289878 0.83193207 12663895
0.44969401 0.010312073 0.83121383 12663895
0.45039558 0.0093385242 0.82907844 12663897
0.45176405 0.009386763 0.82622796 12663897
0.45246565 0.008413218 0.82409257 12664667
0.45313865 0.008439254 0.82196033 12796253
0.45877072 0.073683351 0.80436802 11101540
0.45812637 0.072657734 0.80649716 11233126
0.45609105 0.071587712 0.81006265 11102567
0.45544672 0.070562094 0.81219167 10839395
0.45477986 0.069540307 0.81290668 10708839
0.45483094 0.068536878 0.81431758 10445667
0.45349115 0.067489058 0.81716484 10249315
0.45349115 0.067489058 0.81716484 10249315
0.45351976 0.066489473 0.81716168 10118493
0.45285293 0.065467685 0.81787664 9986907
0.45220855 0.064442068 0.82000577 9394511
0.45220855 0.064442068 0.82000577 8802374
0.45154172 0.063420281 0.82072079 8472641
0.45159283 0.062416855 0.82213163 7880504
0.45089734 0.062394653 0.82284987 7487545
0.45092595 0.061395083 0.82284665 7421752
0.45028162 0.060369451 0.82497573 6569262
0.44963729 0.059343826 0.82710481 5516574
0.4489643 0.059317786 0.82923704 5844258
0.44762444 0.058269966 0.8320843 7620669
0.44558915 0.057199951 0.83564973 9921632
0.44424933 0.056152124 0.83849704 10447976
0.44296062 0.054100875 0.84275514 11303286
0.44159216 0.05405264 0.84560561 11105907
0.44094783 0.053027023 0.84773463 10778733
0.44028097 0.052005243 0.84844971 9462873
0.43963659 0.050979611 0.85057878 8213315
0.43965909 0.050975766 0.85199279 6897455
0.43829679 0.049931791 0.85342604 5119765
0.43834791 0.048928369 0.85483682 5382937
0.43768102 0.047906581 0.8555519 9856863
0.43770352 0.047902737 0.8569659 8804175
0.43703669 0.046880957 0.85768098 8344394
0.43636984 0.045859184 0.85839593 7752257
0.43639231 0.04585534 0.85980999 6701111
0.43572548 0.04483356 0.86052507 5911595
0.43574798 0.044829715 0.86193907 5122580
0.43508112 0.043807928 0.86265409 4727822
0.43441427 0.042786155 0.86336911 4530703
0.43443674 0.04278231 0.86478323 5188633
0.43376991 0.041760523 0.86549819 5912622
0.43310308 0.040738743 0.86621326 6767931
0.43312559 0.040734898 0.86762726 6899767
0.43315423 0.039735314 0.8676241 6636595
0.43248731 0.038713533 0.86833918 7359548
0.43250984 0.038709689 0.86975318 7293755
0.43184298 0.037687909 0.8704682 7360318
0.43184298 0.037687909 0.8704682 7426111
0.43187159 0.036688324 0.87046504 7295287
0.43187159 0.036688324 0.87046504 7755838
0.43120477 0.03566654 0.87118006 8215375
0.43190023 0.035688736 0.87046188 8873305
0.43192887 0.034689154 0.87045872 9597280
0.43195748 0.033689566 0.8704555 9334108
0.43126202 0.033667371 0.87117374 9926498
0.43129063 0.032667786 0.87117052 9729119
0.43129063 0.032667786 0.87117052 10715244
0.43131927 0.031668201 0.87116736 10583658
0.43134177 0.03166436 0.87258136 11044726
0.43134791 0.030668616 0.8711642 11110519
0.43134791 0.030668616 0.8711642 11242366
0.43137652 0.029669032 0.87116104 11702917
0.43137652 0.029669032 0.87116104 12491669
0.43140513 0.028669447 0.87115788 13873322
0.43210059 0.028691642 0.87043965 14201521
0.4328247 0.027714252 0.86971831 14530486
0.4328247 0.027714252 0.86971831 13282987
0.43283081 0.026718512 0.86830109 13282987
0.43352634 0.026740711 0.86758286 13217196
0.43353248 0.025744967 0.86616564 13217196
0.43422794 0.025767162 0.86544746 13545389
0.43495202 0.024789769 0.86472613 13676975
0.43492955 0.024793614 0.86331201 14137260
0.43565369 0.023816228 0.86259067 14729397
0.43563116 0.023820072 0.86117661 15123892
0.43635526 0.022842679 0.86045527 14926513
0.43705073 0.022864874 0.85973704 14005670
0.43707937 0.02186529 0.85973388 13084568
0.43705687 0.021869134 0.85831982 13282466
0.43775234 0.021891329 0.85760164 14269361
0.43778098 0.020891745 0.85759848 14664121
0.43780959 0.01989216 0.85759532 14795707
0.43778706 0.019896004 0.85618126 13281688
0.4378157 0.018896412 0.8561781 11571070
0.4378157 0.018896412 0.8561781 11632500
0.43784434 0.017896835 0.85617495 11237742
0.4385398 0.01791903 0.85545671 11960436
0.43926394 0.016941637 0.85473531 12223608
0.43924144 0.016945481 0.85332131 12814975
0.43996555 0.015968092 0.85259998 12814975
0.43994302 0.015971936 0.85118592 13008761
0.44066712 0.01499455 0.85046458 12350831
0.44134015 0.01502059 0.84833229 11029842
0.4420417 0.014047038 0.84619689 11095635
0.44273716 0.014069233 0.84547871 11091277
0.44341016 0.014095277 0.84334648 10959691
0.44411176 0.013121728 0.84121108 11876691
0.44480729 0.013143927 0.84049284 11679312
0.44550884 0.012170378 0.83835745 12139861
0.4462043 0.012192577 0.83763927 12271447
0.44621044 0.011196833 0.83622205 12730456
0.44757891 0.011245072 0.83337164 12730456
0.44828051 0.010271523 0.83123624 12664665
0.44967151 0.010315914 0.82979977 12664665
0.45037308 0.0093423687 0.82766438 12927071
0.45104605 0.0093684085 0.82553214 12927071
0.45174766 0.0083948635 0.82339674 12926556
0.45313865 0.008439254 0.82196033 13058142
0.4567129 0.072617188 0.80651951 11427684
0.45606855 0.071591556 0.80864859 11034721
0.45472875 0.070543736 0.81149584 11034721
0.45477986 0.069540307 0.81290668 10969954
0.45413548 0.068514675 0.81503582 10904161
0.45346865 0.067492902 0.81575078 10707552
0.45277318 0.0674707 0.81646901 10773345
0.45280182 0.066471115 0.81646585 10708579
0.45285293 0.065467685 0.81787664 10708579
0.45215741 0.065445498 0.81859487 10116955
0.45149058 0.064423725 0.81930995 9393232
0.45154172 0.063420281 0.82072079 8407875
0.45087487 0.062398504 0.82143581 7881531
0.45089734 0.062394653 0.82284987 7029559
0.45092595 0.061395083 0.82284665 6963766
0.45092595 0.061395083 0.82284665 6242868
0.44958615 0.060347255 0.82569391 5716524
0.44894177 0.059321631 0.82782304 6960433
0.44760197 0.058273811 0.83067024 7881535
0.44556665 0.057203796 0.83423573 8740694
0.44424933 0.056152124 0.83849704 9727589
0.44296062 0.054100875 0.84275514 10646895
0.44156966 0.054056484 0.84419155 11107446
0.4409253 0.053030867 0.84632063 10973806
0.44025844 0.05200908 0.84703565 10184290
0.43961412 0.050983455 0.84916472 8673618
0.43894112 0.050957415 0.85129696 7555137
0.43827426 0.049935635 0.85201198 5647910
0.43832541 0.048932213 0.85342288 5582117
0.43762994 0.048910018 0.854141 6566189
0.43768102 0.047906581 0.8555519 5447708
0.43701416 0.046884801 0.85626692 4460297
0.4363187 0.046862606 0.85698515 4460297
0.43636984 0.045859184 0.85839593 4397325
0.43570298 0.044837397 0.85911101 4199946
0.43570298 0.044837397 0.85911101 3674116
0.43575412 0.043833967 0.86052191 4068874
0.43508726 0.042812195 0.86123693 4990489
0.4343918 0.042789999 0.86195511 6043177
0.43444288 0.041786563 0.86336595 7162171
0.43377602 0.040764783 0.86408103 7885894
0.43379855 0.040760938 0.86549503 8215629
0.43313169 0.039739158 0.8662101 8347215
0.43243623 0.039716963 0.86692828 8478801
0.43248731 0.038713533 0.86833918 8610387
0.43182048 0.037691753 0.8690542 8938582
0.43182048 0.037691753 0.8690542 9070168
0.43184912 0.036692169 0.86905098 9333338
0.43184912 0.036692169 0.86905098 9662303
0.43187773 0.03569258 0.86904782 10449766
0.43187773 0.03569258 0.86904782 10778731
0.43190634 0.034692999 0.86904466 11042418
0.43190634 0.034692999 0.86904466 11108211
0.43195748 0.033689566 0.8704555 11042934
0.43126816 0.03267163 0.86975652 11240313
0.43126816 0.03267163 0.86975652 11372410
0.43129677 0.031672046 0.86975336 11438203
0.43131927 0.031668201 0.87116736 11176060
0.43134791 0.030668616 0.8711642 11307646
0.43132538 0.030672461 0.86975014 11769226
0.43135402 0.029672876 0.86974698 12229777
0.43135402 0.029672876 0.86974698 12888221
0.43138266 0.028673291 0.86974382 13019807
0.43207812 0.028695486 0.86902559 13282978
0.4328022 0.027718097 0.86830425 13414564
0.4328022 0.027718097 0.86830425 12690080
0.43280837 0.026722357 0.86688703 12361115
0.43350384 0.026744552 0.86616886 11835281
0.43350995 0.025748808 0.86475164 11572109
0.43420541 0.025771003 0.86403346 11441802
0.43492955 0.024793614 0.86331201 11968146
0.43490708 0.024797458 0.86189801 12692124
0.43563116 0.023820072 0.86117661 13810605
0.43560866 0.023823913 0.85976261 14730935
0.4356373 0.022824328 0.85975945 14665142
0.43633276 0.022846524 0.85904121 14071465
0.43702823 0.022868719 0.85832298 12755605
0.43703437 0.021872975 0.85690582 13215129
0.43772984 0.021895174 0.85618764 14333610
0.43775845 0.020895589 0.85618448 15319994
0.43775845 0.020895589 0.85618448 15056822
0.43776459 0.019899849 0.85476726 13151901
0.4377932 0.018900257 0.8547641 11638662
0.43848872 0.018922456 0.85404587 11371381
0.43851733 0.017922875 0.85404271 11042416
0.43851733 0.017922875 0.85404271 11630705
0.43924144 0.016945481 0.85332131 11828084
0.43921894 0.016949322 0.85190731 11826290
0.43992051 0.015975777 0.84977192 11365739
0.44061604 0.015997972 0.84905368 11364714
0.44134015 0.01502059 0.84833229 11035749
0.44131762 0.015024431 0.84691828 11228763
0.4420417 0.014047038 0.84619689 10834005
0.44271469 0.014073081 0.84406465 11945815
0.44338769 0.014099117 0.84193242 11814229
0.44408929 0.013125572 0.83979702 12467284
0.44478476 0.013147768 0.83907878 12335698
0.44548634 0.012174223 0.83694345 12533592
0.44687733 0.012218617 0.83550698 12599385
0.44688344 0.011222873 0.83408982 12599383
0.44755644 0.011248913 0.83195758 12599383
0.44897604 0.010293718 0.83051801 12599895
0.44964898 0.010319758 0.82838577 12468309
0.45035058 0.0093462132 0.82625031 12664663
0.45102355 0.009372253 0.82411814 12862042
0.45172518 0.008398708 0.82198274 13058906
0.45311615 0.0084430985 0.82054633 12993113
0.45312226 0.0074473582 0.81912911 13058394
0.45669037 0.072621033 0.80510551 11165539
0.45606855 0.071591556 0.80864859 11034721
0.45470625 0.070547581 0.81008184 11034721
0.45475739 0.069544151 0.81149268 10969954
0.45411298 0.068518534 0.81362176 10904161
0.45275068 0.067474544 0.81505495 10642016
0.45275068 0.067474544 0.81505495 10707809
0.45280182 0.066471115 0.81646585 10774372
0.45213497 0.065449327 0.81718081 10774372
0.45215741 0.065445498 0.81859487 10511713
0.45149058 0.064423725 0.81930995 10182748
0.45082372 0.063401937 0.82002497 9788247
0.45087487 0.062398504 0.82143581 9459282
0.45017937 0.062376309 0.82215405 8737869
0.45020801 0.061376724 0.82215083 8408904
0.44954112 0.060354937 0.8228659 7490112
0.44886816 0.060328897 0.82499808 7095354
0.44752833 0.059281085 0.82784539 7749949
0.44690645 0.058251608 0.83138847 8473672
0.44556665 0.057203796 0.83423573 9198935
0.44353133 0.056133781 0.83780122 9988451
0.44290948 0.055104312 0.8413443 10777454
0.44156966 0.054056484 0.84419155 11303798
0.4409253 0.053030867 0.84632063 11236978
0.44025844 0.05200908 0.84703565 10579048
